558.81427,638.405396,4.74908018,164,221,210
583.002747,605.164551,5.19370031,232,236,224
634.185303,641.112183,4.91849804,249,253,173
565.930786,631.307861,5.30177689,151,237,179
552.465393,645.027222,4.42467833,209,170,182
568.715637,641.560486,4.60848427,238,198,240
541.291443,632.765503,5.22370577,241,209,229
539.970032,616.726013,4.46554279,196,211,200
645.641541,653.825439,4.76492405,213,152,250
552.237671,594.564697,5.2150898,222,188,167
614.338074,648.961914,5.89777088,163,158,239
628.892822,677.25708,4.19534445,241,209,220
578.072021,644.569885,5.21999359,196,184,227
532.599365,586.817871,4.78212118,253,153,151
520.609497,620.991638,4.85031176,255,153,203
482.052826,657.018188,4.06262636,239,193,183
751.591492,675.648499,4.79030037,163,244,197
520.57196,654.804932,4.65308142,236,211,189
527.70166,628.787781,5.68906784,231,202,173
749.252808,620.41394,4.7135067,209,190,178
544.417908,602.647522,5.60439396,238,220,158
726.868713,666.277405,5.54448938,157,237,212
549.085938,684.36908,5.63092279,157,184,184
470.016754,672.47644,5.54254055,255,252,190
570.665771,684.170105,5.82991934,221,161,183
708.624878,655.148865,4.19082022,172,211,237
581.816589,684.664185,5.33184481,253,235,240
520.927307,675.078613,5.12248707,250,196,227
594.767944,657.072937,5.69782782,239,163,252
525.011414,638.180054,4.08086729,164,239,191
592.016846,685.121338,4.87867308,212,245,252
536.406372,595.775452,4.95074034,245,153,243
904.22937,628.809753,4.27866268,164,192,178
694.651306,631.334412,4.4575963,220,208,235
575.075867,673.431274,5.76093578,194,211,206
827.770203,639.093811,4.21098852,177,193,233
715.555847,665.661011,5.7851181,241,238,252
389.696228,645.602661,5.81365681,176,211,226
963.183533,605.862549,5.7214613,219,221,176
330.946228,685.165161,4.83482218,246,200,255
291.291534,616.064636,4.6752305,208,181,245
974.003479,606.526001,5.11620426,211,207,201
882.547668,685.506226,4.493752,151,152,250
359.291229,675.820068,4.56968117,208,151,151
553.760925,666.460754,4.82207394,250,245,246
862.38446,656.535583,5.26870251,151,202,193
587.032043,664.310303,4.89556646,181,217,204
700.016418,646.040833,5.52323914,166,187,173
734.000244,685.059387,4.94060135,219,235,160
660.664001,684.367126,5.632864,246,222,208
654.680359,655.168762,4.37303686,152,169,208
713.59314,685.559509,4.44048214,216,168,169
694.121643,684.709656,5.29034567,254,182,189
721.978882,635.029907,4.77347088,253,150,160
760.281128,615.616455,4.68213272,199,172,180
690.999634,621.615906,5.75467873,156,165,239
744.85968,684.035645,5.9643364,209,151,150
640.552002,685.813782,4.18620539,218,186,181
570.8703,652.191833,5.26620293,254,248,168
683.358398,684.548096,5.45191145,169,173,203
586.320496,674.741333,5.55975103,224,221,185
738.7995,612.709473,5.79710865,248,238,248
703.656555,663.986084,5.94732761,231,215,203
688.14563,611.353882,4.8968482,190,249,182
623.28894,685.963867,4.03615093,170,197,169
658.546509,674.21991,4.73293781,156,216,166
643.08197,644.661316,4.61612177,225,208,235
631.841309,685.469604,4.53040457,179,187,251
689.750854,667.973816,4.78619528,157,176,176
581.17334,655.614624,5.5896225,246,177,213
658.112549,630.773254,5.72833538,210,197,168
654.698853,664.685791,5.14400864,198,166,193
694.778137,656.170715,5.88091707,195,155,248
680.043884,619.059448,5.49543762,173,242,195
605.433411,674.7146,5.93330956,209,246,212
634.766296,666.8526,4.61139393,236,182,216
606.634766,619.869385,4.33898544,255,244,203
631.692688,625.843018,5.39205933,195,173,181
620.807373,626.852905,5.34228706,215,176,255
614.377991,597.814209,5.75474644,253,182,158
587.472473,617.602966,5.40496826,188,242,191
616.14917,616.93103,5.61872244,199,174,173
609.95166,629.478455,5.82648087,156,206,185
619.102234,677.105347,5.59659052,157,165,163
556.465942,618.214294,5.7800107,164,241,247
600.374451,626.561829,4.18796396,212,235,200
648.882446,674.246704,4.93119621,211,171,207
528.693726,648.351013,5.72080898,201,191,219
547.906433,612.330933,4.60653114,209,250,246
547.713318,653.917175,5.65573788,154,252,217
664.731445,654.820251,5.68404627,243,196,248
603.911011,663.140015,5.27485991,165,162,255
535.565125,659.709717,4.64591312,212,168,241
674.039551,663.187317,5.48808527,250,239,211
749.578247,660.896606,5.67196035,161,150,207
509.850739,674.474121,5.83042717,183,245,197
756.232544,645.331177,4.36573219,150,165,210
517.626892,664.496216,5.47579384,218,171,242
780.782837,685.160828,4.83920002,175,165,200
515.358215,684.394592,5.51569223,178,227,241
537.113403,669.712341,4.09200525,243,211,218
488.399628,672.701294,4.94834757,239,197,234
464.836884,654.913391,4.94694328,243,250,172
757.986206,636.348999,4.09611797,218,249,183
531.137573,675.925598,4.52178717,168,207,245
690.229797,640.493591,5.71297979,153,165,173
537.570129,684.112244,5.88778305,241,181,240
718.404114,654.635986,5.60189867,199,184,182
807.568115,657.233582,4.91650581,192,250,161
499.531952,671.056702,4.77220535,189,223,192
601.274292,685.608398,4.39158249,161,244,195
460.889923,675.523743,4.03644371,184,236,230
374.112732,659.299866,5.31144524,175,223,239
319.791412,651.608032,4.68124914,254,156,217
331.834808,649.113708,5.38578081,224,178,185
339.429688,674.468994,4.8358922,185,159,250
912.167542,676.251404,5.50122929,248,198,248
970.7995,627.359253,4.82523537,252,245,173
969.112183,637.78302,5.73423338,186,161,204
961.838562,659.628601,5.50174236,248,254,179
302.823242,642.840027,5.80510569,233,238,235
306.479584,627.258423,4.59527016,198,249,161
365.700134,666.736755,5.91708279,225,158,220
964.806763,648.605957,5.91360188,201,232,165
922.740417,676.591614,4.89689112,161,174,201
352.39032,654.65979,5.34503698,202,172,165
909.089905,656.9151,5.57923603,202,191,207
754.996704,685.884888,4.11511755,154,184,236
853.253723,642.950928,5.09183168,167,225,158
827.445679,660.029846,5.52302122,166,251,156
564.637878,675.351318,4.85218287,191,158,199
768.656738,664.014038,5.78379393,154,178,186
862.383545,646.672546,4.46645594,214,235,166
740.130981,625.828796,5.89449692,194,153,185
793.041565,637.872192,4.75251913,168,210,203
526.282288,684.589844,5.41016865,239,168,188
836.408081,641.892151,4.86890364,162,241,207
783.469116,675.195435,5.4819479,210,254,188
747.510925,649.925659,5.49208975,241,211,212
476.780243,685.044556,4.95543003,205,182,187
704.290283,685.12207,4.8726716,193,194,181
779.466064,665.386902,5.11201,170,229,234
759.793701,655.279724,5.98592949,185,248,168
731.254272,640.401489,5.93860531,196,254,198
729.654114,619.155212,5.39149761,150,203,152
710.153015,675.911743,5.80231619,224,161,223
708.719604,614.79248,5.90082312,251,225,173
705.737793,603.669189,5.24026537,241,185,239
702.581665,636.065674,4.77653694,199,177,241
685.303162,649.690796,4.72069025,213,176,212
613.44342,667.16748,5.07219267,233,226,241
618.039673,658.723267,4.54191542,195,184,155
729.902283,654.91272,5.89960003,218,196,174
626.999695,634.931396,4.83648586,179,154,182
638.593384,676.271301,5.55520439,245,198,160
675.234375,628.599365,5.18826151,238,235,208
648.543884,624.55896,5.68423796,182,247,254
657.14563,618.779541,4.82963896,170,204,155
637.295166,609.988281,5.38342857,244,154,251
627.499207,615.437927,5.82633162,250,202,186
625.077454,645.101929,5.51416254,166,234,227
578.035339,618.421875,4.41009045,200,194,226
599.053772,646.169006,4.41445541,253,181,183
617.088806,638.710205,4.71632528,188,175,183
566.268616,607.879211,4.95242119,199,161,214
557.959473,657.46521,5.10381365,243,243,206
649.858337,684.757751,5.17991161,196,172,228
506.624115,663.530212,5.56933641,215,224,200
534.393921,608.099487,5.80630207,247,187,199
555.248718,629.106323,5.17983532,228,240,200
672.103821,684.191711,5.80831718,187,246,237
624.334534,666.957336,5.8209424,255,200,230
679.746338,673.041138,5.89904118,159,205,166
517.760681,632.739319,4.98423243,233,237,218
495.483978,680.996277,5.96006489,215,226,192
479.579529,676.03363,4.48029137,172,204,229
496.853088,662.114014,4.30380535,165,157,153
474.118713,654.180298,4.36375999,174,216,245
453.665039,638.786011,4.94792318,181,199,210
793.353516,657.055176,4.38457823,170,154,231
488.059021,663.200928,4.55718088,171,170,219
788.766479,664.393555,4.24127197,161,239,195
816.090942,676.624146,4.72853947,239,194,176
458.802673,685.921387,4.07862425,196,235,205
802.748718,683.930054,5.7471571,197,210,230
758.494751,665.911011,4.55375528,157,248,201
845.245239,658.741882,4.41869879,205,235,163
415.324829,684.763489,5.23650932,227,237,151
854.031982,663.332336,5.49494171,208,205,156
742.613831,639.796753,5.374331,167,187,248
844.690552,667.938171,4.79432774,238,250,177
915.520142,649.760864,4.04014254,166,252,235
369.930908,647.951233,4.65499496,174,166,162
315.590668,623.697021,5.18718481,159,216,254
323.045807,666.889954,4.99688435,249,235,183
351.690094,684.884521,5.11548424,232,191,190
294.44046,594.1521,4.67489386,175,213,247
299.382019,611.760681,4.48870611,219,250,182
293.785706,674.884399,4.01506853,219,219,153
309.681702,606.313232,5.70163488,211,243,244
992.216736,685.888672,4.11130714,152,180,189
337.884216,640.191467,5.39392281,244,155,215
970.305237,666.095276,5.15199661,153,228,155
303.723694,674.148743,5.95013428,251,200,211
985.840393,591.268372,5.85875225,224,157,175
313.413055,670.077148,4.55995798,154,219,175
927.926758,685.352661,4.64735842,233,246,169
902.218933,677.115967,4.48481941,150,239,163
937.151062,685.422729,4.57726097,160,249,226
396.545746,654.293701,5.06517887,155,199,159
410.764099,675.137817,5.09720612,193,151,162
749.720581,631.737122,5.36914301,214,212,250
891.691772,642.775269,4.00542164,224,164,173
872.619385,671.202271,5.21220398,243,244,198
824.841003,670.947876,5.70145512,199,227,224
825.289551,684.123291,5.87668085,248,184,150
852.806519,674.242004,5.48224115,209,213,242
845.326599,685.720459,4.27954483,250,163,209
817.346008,621.600708,4.32731199,186,154,232
828.74231,649.217651,5.33039427,211,153,238
784.816406,644.786072,5.75440121,167,189,221
829.003357,626.686462,4.87826967,181,200,187
559.782166,684.92041,5.07956219,164,246,174
533.741028,639.221863,4.71072483,215,227,202
775.046509,638.593201,5.81294441,188,200,219
776.762146,627.00946,5.87966442,200,221,191
730.540405,593.096924,4.27854395,178,182,243
698.638123,674.594055,5.78778505,178,187,206
721.672363,644.844788,4.62344408,176,204,182
728.415527,675.834229,4.06706476,215,159,154
678.111267,607.784363,5.75353146,187,162,180
721.409607,625.216614,4.75764322,237,201,205
685.211426,630.685486,5.00457668,154,178,196
689.518494,591.070312,4.81791019,151,176,244
667.795044,635.84552,5.19688511,185,175,192
710.874023,581.494324,5.19805861,160,223,253
644.39978,665.17688,5.16678333,172,196,239
628.467834,655.995239,5.89456654,239,162,253
650.087463,637.911072,5.0117774,246,253,209
610.062195,608.003906,5.18592596,249,217,154
585.389465,635.957642,5.84499884,255,241,180
620.412598,606.973022,5.21342993,200,178,227
560.886841,587.647949,5.86873388,160,172,150
575.132141,610.287903,4.22647619,239,185,203
567.920898,618.37738,5.67498159,212,203,204
575.121521,635.148987,4.45479107,170,196,222
523.494995,611.06366,5.48849916,201,206,175
482.731049,568.984314,4.66699839,174,239,224
588.838318,647.128235,5.84592056,231,240,183
517.483337,644.63678,5.83690929,192,208,200
506.705109,581.434814,4.49645281,220,201,219
595.688232,676.962463,4.06775808,198,178,212
529.921692,618.782471,4.55517435,177,234,198
737.788635,648.356445,4.35607195,254,198,169
473.690552,626.566345,4.82924843,212,210,253
773.068298,673.858948,5.00438976,245,162,243
446.084229,631.520203,5.49992085,205,232,211
444.748108,641.625671,4.41027927,198,194,242
456.607239,629.341614,4.94413376,168,167,150
451.299591,649.129395,5.55105495,215,241,243
451.81012,667.610413,5.11928082,153,150,157
815.520752,664.302307,5.7235713,152,181,159
452.486938,677.247498,4.5414896,183,246,236
806.555969,671.798889,5.95786285,199,156,242
455.752991,658.491089,4.81596899,216,237,236
863.419617,676.37854,5.34378529,221,203,250
836.08667,664.820312,4.35708952,241,157,183
388.117126,674.023804,5.61063004,227,181,195
405.430145,664.622742,5.66043949,186,203,234
446.085205,658.470398,4.81278467,197,231,156
898.762817,660.228638,5.2664814,172,234,168
900.956055,685.754456,4.24555397,185,178,209
341.171509,684.567627,5.40789223,196,218,169
313.047241,645.127747,4.67173195,151,216,236
319.895935,675.771118,4.06845617,154,186,187
292.74411,604.232971,5.54766893,247,202,193
298.659882,548.782043,4.43902111,235,173,230
284.711792,635.42511,5.73693609,208,236,245
298.329834,622.483337,4.85042715,230,163,158
293.224945,647.980957,5.08326817,174,252,222
305.496857,685.721313,4.27871227,153,175,207
979.979614,660.959412,5.8011446,236,186,224
989.183533,676.615723,5.64516783,234,191,249
994.006165,598.233826,4.99618149,166,186,174
999.029907,628.346008,4.99492979,236,255,235
962.039673,670.723328,4.27377129,180,155,240
964.105042,616.739929,5.19482613,202,220,159
984.491638,603.396606,5.82882404,234,241,211
943.152466,627.37677,5.03783512,151,203,214
919.887573,656.72937,4.16559744,175,178,170
921.838074,632.119568,5.6741581,185,208,188
835.21582,674.362366,5.22080946,247,204,173
851.259094,625.487427,5.87365961,205,182,185
917.088623,616.376892,5.07968569,248,230,211
880.909607,644.221252,5.91047287,247,222,175
467.188171,682.578979,4.94847488,222,189,166
888.74115,661.418152,4.82558727,192,253,191
878.124817,633.418213,4.91936302,152,250,193
859.875305,634.133057,5.93539906,247,161,168
854.218811,685.179016,4.62919331,198,210,166
835.835205,604.605164,5.90047455,196,161,211
762.298096,675.665894,5.91634178,157,244,170
844.299805,648.64563,5.51807165,229,219,221
784.466858,634.397888,4.49933624,161,164,208
794.659912,672.738953,5.97533607,175,196,181
788.261536,625.242676,5.41115046,166,172,175
749.315002,610.564758,5.13589048,156,163,228
770.630188,612.921631,5.39484024,197,221,208
704.099609,590.270325,5.88853312,244,243,188
730.014587,629.623657,4.91028738,255,252,166
668.564209,673.662109,5.30033493,248,209,194
740.301697,592.166626,4.15390635,192,189,239
687.126892,601.0578,5.44953346,188,164,153
723.516785,684.159424,5.58144617,162,231,182
711.301025,645.552307,5.77195549,215,204,248
702.147156,624.420227,5.74019766,162,162,167
678.690552,639.398193,5.87813568,188,195,178
667.535034,603.839783,5.53437662,211,206,165
640.557983,632.559448,5.74735451,159,179,174
585.614075,595.679077,4.67274094,154,214,243
636.602539,650.350708,4.00669289,163,179,217
573.585571,600.548645,5.43110657,174,197,214
596.716858,635.745911,5.82067823,222,164,198
523.489258,589.735962,4.78326035,161,208,186
504.858337,602.901794,5.57269001,219,188,205
491.105713,615.213196,5.76839781,160,211,226
501.891541,631.970703,5.97836971,201,153,208
513.487061,608.664001,4.80316067,212,203,223
495.932587,606.612915,4.09389067,239,190,152
526.568054,599.72937,5.65241146,154,203,196
664.272461,664.926514,4.43264818,248,169,210
505.276276,645.028748,4.5204668,199,231,211
489.962311,632.970215,5.99267149,181,248,251
494.28067,597.361084,5.24587488,238,222,217
471.718506,644.963806,5.16017246,160,254,205
439.349335,664.94635,4.53119993,178,158,216
431.959442,657.568359,5.91130304,191,158,228
430.281311,646.472717,5.31048393,160,208,247
490.442719,654.109924,4.81690645,187,221,154
408.783875,626.389343,4.09756708,219,186,209
450.506317,685.781067,4.21893787,218,226,230
405.717468,654.843506,4.123034,245,211,242
432.97403,675.940857,5.81302738,205,189,247
425.619629,683.986755,5.08755779,182,155,237
401.064941,644.639038,5.59485197,241,246,208
381.982269,683.571106,5.73458862,162,194,238
872.525574,682.906128,5.86018085,212,176,187
394.937042,636.770447,4.37844324,194,207,180
891.940369,681.671448,5.65163326,181,202,179
894.356018,670.459473,5.81740284,249,151,227
363.209442,655.581116,5.51327133,188,215,245
319.95575,634.435974,4.16819668,254,166,253
324.66748,627.136841,4.51960707,213,237,184
952.981812,685.743103,4.25689745,179,220,223
299.29538,558.063843,4.86448145,212,177,209
288.84906,625.824768,4.35899448,242,171,217
297.698547,656.283081,4.347507,217,240,213
285.411102,656.351624,5.41634417,166,159,214
273.715271,651.056946,4.11584091,231,199,163
997.958801,651.168274,5.94697809,225,185,248
1008.77875,668.616272,5.18879175,156,178,160
295.669373,684.356995,5.64302588,228,181,200
969.859009,685.494995,4.50501728,175,247,195
999.851807,640.449585,4.93707895,230,248,162
989.785706,633.740967,5.7084198,178,178,224
997.596619,570.025818,4.44153929,196,227,233
975.947327,649.96051,5.30902243,216,230,205
979.257751,634.716492,4.8646698,196,229,250
980.52356,624.620972,5.27705193,168,206,218
950.83728,656.110718,5.96795559,207,187,164
933.116943,676.091797,5.49167395,213,174,173
918.542786,685.262939,4.73705292,229,176,221
887.028503,635.88031,4.31849146,166,242,202
909.508667,685.692688,4.30731583,195,199,220
899.427612,649.689575,5.25244045,193,202,173
883.283569,674.111328,5.84169579,169,195,164
894.73877,617.977417,4.96304464,220,166,233
905.322083,668.291748,4.86061192,197,209,212
884.621826,616.233887,5.30303907,151,237,221
867.433228,616.381409,4.62072372,230,221,170
880.533203,654.507751,4.14489365,231,244,187
822.344116,593.112854,4.58332539,238,182,251
856.034302,614.751892,5.81563759,235,200,237
808.900085,606.550781,4.29184437,195,181,228
807.449768,597.375061,4.99777651,241,169,182
801.813904,652.725647,5.1192975,246,151,246
794.498596,646.991028,4.17573309,179,182,226
774.44635,655.933044,4.15715694,252,215,187
757.89386,625.138977,5.13508177,164,247,255
766.787415,621.860413,4.33496523,253,224,210
611.025513,684.587036,5.41295147,158,155,222
689.002991,676.832397,4.10394239,190,225,157
736.44165,601.349304,5.894701,211,233,211
545.275391,674.204468,5.22451591,156,224,233
722.707458,598.263977,5.10600281,207,171,175
712.245117,634.860168,4.96180773,190,209,255
712.878784,596.501465,4.87721443,161,236,161
671.09613,615.026855,4.31908941,168,204,249
657.60675,608.542969,5.48855829,202,204,181
603.80304,599.752625,4.9963913,219,167,232
578.933899,589.532166,4.45690966,205,254,208
542.9021,643.259338,5.30065155,184,210,242
563.710632,597.961914,4.83679962,246,156,225
570.341675,591.394653,4.34838676,180,207,210
516.599792,576.94989,5.69249058,153,241,169
465.929535,636.250793,5.00968981,198,200,245
480.572754,595.690674,5.17611694,247,249,215
461.371338,645.38147,5.19544697,155,188,191
494.443787,644.077148,5.98426676,161,152,167
684.178467,659.611023,5.26312065,246,248,175
606.98877,640.339722,5.43165016,243,236,191
476.243591,605.148865,4.47508669,151,186,218
468.063049,607.844849,4.13826561,211,209,163
470.537384,597.547668,5.02963448,233,151,252
470.178314,662.494629,4.32704782,238,177,215
791.287292,684.127075,5.71597242,214,189,225
442.569153,682.793884,4.26174736,172,196,180
853.445251,652.666077,4.47210073,163,229,223
819.422424,642.737976,4.89755535,243,254,150
836.021118,685.095276,4.89886761,192,225,150
410.258423,617.914001,4.50505543,233,177,186
385.973267,635.249451,4.71346426,186,198,193
461.715485,666.153137,4.89273739,228,155,210
387.470276,655.321899,4.06837559,151,222,186
393.576752,684.12677,5.87321138,150,184,219
863.890137,666.475891,4.36002064,218,182,200
358.315948,647.326172,4.08314562,169,202,237
360.142914,626.843811,5.37193537,247,238,199
364.074036,639.114502,5.9461956,244,205,192
361.834991,685.022278,4.97769308,187,233,172
324.543335,593.585205,4.05994701,201,229,199
317.918518,600.458984,4.40370703,157,234,150
307.039307,653.288208,5.46165895,245,251,154
293.627167,583.359924,5.92669392,183,214,204
286.021393,574.226685,5.95726252,223,179,231
315.57785,545.892395,5.23569441,196,253,225
282.462555,665.532288,4.22621965,195,217,182
264.339996,563.24939,5.20121908,229,163,202
1001.53284,684.332214,5.33394289,239,211,241
1019.29926,684.826355,4.31857491,219,212,222
1016.10132,640.829834,5.73287725,197,162,222
1013.55078,604.205078,4.18096352,254,224,217
1014.45197,594.766052,5.30102348,153,251,168
1004.22308,598.584839,5.61569214,162,254,172
999.689514,617.684143,4.87116671,150,237,203
998.421509,663.360718,5.29814911,164,214,225
979.364441,671.963013,5.21966362,170,168,209
992.024597,611.31134,5.09699917,198,245,184
983.349854,615.308777,4.4545393,160,248,221
329.279022,675.131531,5.33642578,215,195,158
954.074707,666.338013,4.75957155,221,197,215
323.657928,642.777893,4.95836353,242,175,174
926.286011,667.608704,4.76039124,197,186,228
929.008301,658.165283,5.06720495,192,197,236
893.740784,628.522705,5.62597132,192,170,172
925.194336,622.132568,4.86172438,196,164,174
909.893494,608.88269,5.30938625,164,217,170
901.489136,602.214233,4.95836639,183,227,217
908.183228,645.36377,4.51355314,176,178,177
889.26178,651.527954,5.07832241,255,185,179
864.135864,606.884583,5.43230152,226,153,239
861.682739,597.467712,4.24377203,156,244,223
869.854553,639.918274,5.59956217,220,212,205
844.74823,613.126892,5.5868144,191,205,185
826.13916,565.11731,4.84905481,156,203,150
836.66803,655.510559,4.74701929,255,196,162
809.027283,616.935181,5.20322371,170,235,241
790.908447,615.737061,4.45615959,164,159,237
810.937683,637.987488,4.82205677,191,221,173
778.375916,606.435791,4.7068429,240,186,217
740.152405,656.942688,4.54961205,249,209,188
528.250366,666.500488,5.3350997,168,185,223
764.916687,642.09021,4.90353537,218,196,198
780.931885,616.449524,5.47374725,182,170,230
738.52832,583.95105,4.35689211,164,184,241
712.243591,625.486023,4.41237211,159,222,227
715.93866,606.175659,5.26403093,174,151,213
651.639771,647.065002,4.2728796,167,216,191
669.986511,645.680725,4.85639906,190,224,252
629.653625,603.433716,4.68217993,168,217,239
591.516907,626.797485,4.67445421,188,185,253
510.71814,653.471497,5.2905798,152,222,157
563.297913,665.859314,4.73391199,190,252,217
514.149109,587.23938,4.88481998,151,209,154
536.617981,624.651672,4.13986301,170,157,251
478.854645,666.394897,5.18562412,193,207,152
574.251404,626.356506,4.38064957,236,193,151
555.076721,675.920105,4.72588873,247,236,179
459.707428,610.623047,4.66713905,193,207,185
478.489197,636.188782,5.92333126,180,196,204
546.361145,623.804932,5.07165527,179,204,165
464.881195,625.938354,4.00247335,161,157,233
449.836212,612.438416,4.94977283,172,241,253
428.282227,667.276611,4.04005289,253,214,179
443.560852,673.543274,5.04191589,171,231,221
421.467682,674.179993,5.51054096,165,225,187
421.670746,600.331238,4.31860828,163,185,246
425.547363,608.766968,4.45471478,215,254,234
400.651398,629.725586,4.69264364,222,214,224
399.907898,674.494324,5.6505723,172,175,217
391.190796,625.312317,5.74667358,184,171,192
376.235718,591.343994,5.14917469,250,255,161
376.332062,639.593384,5.86119032,187,231,194
371.619781,685.23877,4.76124668,255,179,227
377.064911,672.07666,5.61185074,156,201,163
350.858185,624.679199,4.16183853,184,215,240
343.949524,631.275085,5.38990211,227,169,231
349.546997,674.369751,5.28194427,215,174,203
329.296661,635.026001,4.62745523,163,214,229
332.768158,588.65448,5.52961969,201,152,248
317.042847,613.818726,4.79732609,162,247,157
320.924255,685.043518,4.95646811,174,228,217
284.048401,646.872803,4.15993071,181,245,241
278.124298,627.428528,4.62363243,169,167,242
285.709442,673.320068,4.21132946,181,242,192
272.377899,556.586548,5.2391758,172,232,180
977.263062,681.065918,4.12269926,183,159,238
1019.77515,609.697144,4.11632776,199,180,205
988.999023,666.374756,4.59471035,232,158,248
1010.89362,685.850769,4.14925957,211,156,229
1017.65662,618.990173,5.38323593,153,153,252
1016.48096,629.98822,4.45778942,252,201,242
1013.95636,575.052124,5.24779177,187,252,199
1000.67725,561.928467,4.26142073,212,211,248
1015.92847,584.838745,4.73551846,235,163,220
986.562927,651.814209,5.46722889,154,204,151
1007.54578,588.123047,4.26760769,251,228,170
1008.78271,612.654053,5.52057981,188,154,214
970.181274,675.893433,4.64700079,234,202,231
955.389465,620.052917,4.12923336,185,230,248
961.518188,626.172485,4.53170204,212,170,201
952.565247,675.506165,4.53203869,175,217,183
945.339233,681.170166,4.64935207,231,253,248
944.526306,647.118713,4.7517767,178,187,191
919.888733,604.429749,5.57003307,254,213,166
927.502319,612.214905,5.31738424,150,151,209
934.891357,665.286377,4.15283394,159,207,209
911.204773,635.751587,5.56234074,224,183,157
893.079956,595.519653,5.79023552,198,228,166
875.875488,561.854919,4.13330412,194,232,218
875.664001,622.227295,5.47486782,236,250,157
900.80127,611.239563,4.08334589,236,192,150
862.966003,685.855835,4.14416885,248,173,166
848.661377,583.330322,5.91300297,253,207,180
856.477356,576.309814,4.59307098,201,164,232
832.206909,594.037415,5.32274151,200,207,154
840.579712,622.96637,5.0992322,245,157,213
800.591919,662.787231,4.84859371,245,241,230
812.980408,685.409119,4.59088945,253,174,222
801.016724,632.589661,4.7638793,216,198,185
783.831238,655.726196,5.23002577,254,190,238
788.141418,606.631409,5.0606041,159,170,185
734.982361,575.777039,4.58564425,151,162,202
748.06781,599.659302,5.84059429,181,181,247
720.153137,674.82959,4.25619125,166,189,167
736.858337,665.99231,4.44923115,253,208,227
676.319702,653.074341,4.87880993,171,179,233
698.580322,615.096008,4.24300289,200,195,170
639.529358,619.689636,4.57181358,243,188,161
645.557312,602.192139,5.83785295,170,162,170
555.69574,605.191284,5.95679474,253,156,172
572.798889,662.594666,5.31232357,235,171,238
515.179138,597.949524,5.87477589,162,231,151
525.731812,580.930664,4.2634573,201,176,199
510.731293,626.481628,4.42702293,172,237,193
483.517059,623.496582,5.46560287,186,210,246
483.78064,586.015808,5.01672125,168,172,178
495.244812,624.267883,4.18751383,174,250,157
478.856659,614.198486,4.92311478,221,150,154
482.4104,647.199158,5.76290131,253,248,245
770.22406,684.240356,5.75963306,238,159,170
417.743744,629.733704,5.46614265,240,176,215
421.979645,661.205872,4.71076918,158,185,235
420.414368,618.879395,5.69609547,203,161,230
843.894043,677.543396,4.02206326,183,202,169
410.840546,647.71698,4.65386343,244,219,205
406.226837,600.264648,5.00410032,153,153,169
394.208984,664.659546,5.5607996,248,175,186
404.762634,684.673889,5.32608414,253,252,170
385.122162,588.84613,4.05814266,153,209,206
380.835388,627.271912,4.77534723,220,153,242
379.615356,650.244629,5.2846508,250,229,207
353.726868,635.149048,5.12296915,173,183,179
334.647675,625.403687,5.60997772,209,209,168
343.383087,619.387939,4.99651146,232,171,173
344.653534,665.672302,4.66847658,207,251,180
336.016357,611.615356,5.6502614,197,194,249
325.175568,572.970703,4.24475336,204,246,167
326.803558,657.904297,4.7428441,241,196,224
961.20105,680.546753,5.46723175,194,182,166
315.094543,660.386841,5.27510643,196,240,164
304.365997,663.26062,4.81980991,224,252,158
276.318115,567.01416,5.90062523,210,159,199
281.967987,558.484375,4.33058834,243,219,230
292.5383,665.089233,5.85923386,168,191,184
273.786591,685.140686,4.85931349,218,242,213
272.92688,585.215576,4.37220287,170,223,213
310.913635,635.729248,4.96593761,239,153,252
1017.92493,674.793701,5.80782652,150,173,206
253.201508,685.985962,4.01405859,203,195,209
1027.60779,677.56073,4.26269865,180,233,173
1035.05591,619.553406,4.94412088,179,173,255
1026.72998,668.777466,4.56437397,156,184,204
1025.03723,601.259888,5.81250906,159,229,165
1025.48865,634.626709,5.51879644,238,226,219
983.974731,685.869263,4.13073254,249,205,233
1008.00726,623.432007,5.23939896,206,170,217
1007.51233,646.62854,4.6303792,156,219,164
982.974731,643.006226,4.04364681,224,169,237
948.305664,564.023376,5.12033653,170,191,175
974.134583,616.501038,4.8375864,163,206,186
953.940186,598.712463,5.96259403,218,152,236
368.209747,676.73999,4.39619541,198,168,238
943.945801,669.64032,5.89407206,210,190,182
938.632141,639.717651,4.30249357,255,220,235
939.825928,657.432739,5.12244558,173,210,210
933.734985,648.462585,5.72027922,192,190,188
935.32196,620.384644,5.41567039,247,219,219
933.17926,631.339478,5.69383717,234,154,151
905.647217,619.307922,5.32837582,215,223,247
900.131714,637.935059,5.72397375,188,235,225
884.164734,626.686768,4.12454605,187,209,208
879.227234,663.523193,4.91847992,212,198,213
861.654297,623.668274,4.67955494,169,175,217
871.575012,650.8974,5.51350307,164,253,234
814.7948,569.423218,5.31925869,241,163,176
836.407288,582.600952,5.89327574,207,177,175
846.428589,635.358887,5.11596155,174,152,221
834.812927,615.211487,4.56486177,248,155,188
809.69989,627.472961,5.31356049,199,192,168
802.165039,642.167114,4.88214445,161,223,157
775.541077,584.042908,4.57427597,190,185,250
766.227539,579.061584,5.26916504,158,196,164
768.707397,601.862549,5.83018017,231,191,209
758.459229,595.39502,5.39179802,151,156,229
727.021545,608.187073,5.71435833,176,189,251
744.803772,669.630066,4.28142309,157,250,181
655.890442,597.923767,5.30858517,250,153,243
660.250427,643.043518,5.23059607,168,181,158
647.689697,613.379578,5.6072073,165,150,212
597.49231,617.987793,4.97071791,170,179,162
604.705078,653.250977,4.64602232,251,244,208
503.373627,621.742737,4.32446671,218,174,152
543.672974,588.897522,5.05479908,169,183,175
510.164795,637.828491,4.158813,248,210,241
461.569061,591.627808,5.71635437,251,199,155
469.001434,617.452148,5.4204855,160,215,196
466.142426,581.601929,5.30333567,234,237,247
436.096497,636.514282,5.63851023,241,179,239
467.918243,571.972229,4.48867989,239,211,182
459.081848,619.748474,4.47974825,183,190,200
430.934631,616.415527,4.900702,224,206,172
440.345245,650.215088,5.24185705,166,218,160
818.49176,653.284363,5.68747473,184,182,233
422.665497,585.1651,5.47858953,215,248,189
420.81778,575.860535,4.00763416,188,219,222
404.001526,610.336426,5.31056499,221,236,212
401.235138,620.31134,4.68076038,174,196,187
384.91449,607.243713,4.72075558,248,206,202
365.40329,607.838318,5.30632544,249,225,166
370.663361,629.710449,5.53212929,226,228,231
354.60553,665.073303,5.30153704,240,172,208
360.829163,597.524414,4.22197914,195,187,163
334.264374,665.252625,5.72912693,211,184,168
341.131409,655.606384,5.95360088,233,174,189
331.68689,599.907837,5.47980833,251,236,171
348.148987,644.443481,5.71668339,200,152,191
326.609283,617.410583,5.39863062,233,194,220
307.541626,617.063538,5.24268913,168,196,163
303.551941,579.059448,4.43688631,210,185,189
301.804901,599.788452,4.52663136,213,182,201
312.408142,680.143616,4.60253048,202,248,254
282.628265,619.37793,4.59983826,190,217,217
275.8125,604.428528,5.75447893,254,235,190
296.193512,633.098938,5.97805691,204,165,242
268.795227,623.046143,5.67630434,179,161,184
277.578888,676.545288,4.53555346,199,234,170
1008.49725,677.92804,4.12728167,250,216,193
268.832886,677.128113,4.22986603,222,210,158
1018.48438,653.099548,5.33840036,247,237,245
1034.85645,639.718872,5.14354467,236,196,189
1035.36609,664.952393,4.63389301,195,196,164
1034.79614,651.671753,5.20384693,201,242,171
1027.41406,659.022888,5.21417904,187,169,178
1018.02423,663.707153,5.27921104,220,241,177
1026.63599,614.937378,4.46836901,194,216,235
1006.47693,568.59436,4.52535152,183,240,204
1008.06256,657.482849,5.96768045,236,187,155
997.54248,588.486572,5.78295994,166,210,161
990.763306,622.365601,5.20814323,157,232,255
923.029907,569.936646,5.94306564,248,189,163
976.003235,596.300476,5.22156,233,205,198
958.40564,636.640503,5.03314543,198,195,211
916.0224,665.769958,5.66663408,246,239,188
942.008423,580.908447,5.6051712,213,211,255
946.921204,606.588135,4.58697748,254,158,237
434.69693,685.825806,4.17418575,166,237,170
940.201843,600.191162,4.69044638,204,190,188
893.552246,566.572266,4.98709297,168,160,226
923.24176,643.566895,5.85885334,150,189,168
913.582092,625.638123,4.82204199,210,161,210
878.076172,590.253906,4.61874533,239,252,241
875.558228,610.09552,5.64239645,174,240,195
870.509766,661.203979,4.1022706,196,236,198
858.498535,588.568848,5.20759106,167,215,217
842.022034,591.696594,4.76767778,185,231,250
850.776123,594.226685,4.24205017,189,233,246
825.858032,584.400879,4.80847931,164,190,188
836.978943,632.214722,4.82535076,254,223,215
819.809937,632.071289,5.77607822,159,163,231
825.298645,618.313477,4.27774286,188,177,152
786.442566,595.621643,5.44794607,151,242,187
817.934387,610.719849,5.65803528,189,151,230
800.197754,610.793701,5.38976479,184,214,204
758.508057,605.941101,5.15439987,250,234,211
737.598267,675.664673,5.11728477,174,172,173
729.025818,583.640625,5.30458355,170,203,167
675.654236,597.498108,4.80779552,222,202,251
679.609985,587.924561,5.5779705,247,181,216
593.938293,600.293152,4.90024662,228,190,212
549.825684,636.756775,4.19774723,197,181,206
638.116394,658.425354,4.05484056,182,173,188
544.225281,664.010559,5.02336264,186,156,217
596.484253,668.844055,4.08955669,214,196,169
505.20517,685.320435,4.67953777,209,167,241
454.275726,603.851929,4.01342058,244,240,160
487.348999,577.061462,4.62243509,213,218,157
450.181152,622.111267,4.72918749,205,225,251
444.649109,585.652466,4.90800333,199,218,179
446.222992,603.3479,4.05507326,216,224,194
425.691498,636.316528,4.76841354,195,213,240
413.458832,658.213562,4.32004976,155,208,164
428.584534,594.11969,4.97570229,250,186,191
404.048676,579.034912,4.74960709,236,155,217
415.114075,608.285583,5.98971605,178,226,208
414.449524,593.069336,5.92227077,166,245,171
383.438416,617.750427,5.08281517,254,198,162
383.615387,663.622131,5.08340979,202,236,200
369.832001,580.963135,4.71237135,181,200,234
373.941315,620.033569,4.68489599,170,193,160
375.545074,610.237671,5.11541748,150,241,212
349.270508,597.880859,4.27839327,162,247,160
388.40863,556.977539,4.41461802,166,248,231
352.014221,578.869324,5.24681187,173,168,186
353.763947,568.30481,5.46163607,177,154,166
342.26297,583.197266,5.42176914,168,213,240
303.752075,589.313416,5.81890917,203,194,196
315.253296,590.465637,5.73993826,160,252,241
325.510803,551.693237,4.11548233,169,190,195
316.985962,571.539734,4.06892252,166,168,175
283.968323,596.016785,5.96197462,201,245,219
276.046265,642.060791,5.17746305,249,251,224
274.265503,668.239868,4.40644598,172,164,176
263.906097,684.977478,5.02255106,230,200,202
263.897644,668.211426,5.96147871,241,200,196
264.143433,612.85199,5.5290556,156,184,197
267.679138,634.661255,5.99224567,194,230,230
257.40036,629.101318,5.69393778,221,168,212
265.531586,656.597351,5.76692963,218,162,196
245.253189,663.149536,5.25318527,229,245,171
1026.13403,645.598267,5.37544394,216,203,159
244.268875,576.641418,4.26887035,170,229,225
284.417542,684.391113,5.60887432,184,205,179
976.232178,562.127014,5.91489601,184,168,157
1034.01074,564.992981,5.98929739,220,179,156
1027.63574,685.911682,4.08832407,174,186,150
1014.65033,565.722107,4.13805914,253,157,154
1023.80499,570.419006,5.64385319,150,185,184
1007.61719,633.891357,5.22720814,172,158,183
1000.50989,607.622742,4.15529871,153,179,244
991.298462,643.464417,4.13201952,221,152,163
971.632385,576.209351,5.61647034,245,183,194
964.991211,594.372192,5.91023064,251,165,215
948.130737,573.295776,4.15372419,183,255,165
954.317139,645.755249,4.9565196,215,239,162
948.034119,637.605957,5.33370876,183,188,216
903.368652,570.556274,5.60696554,204,176,242
937.694763,609.75116,5.16651487,214,166,254
930.822144,603.041199,4.43854809,170,168,202
925.548401,595.416626,4.83224297,235,180,230
901.429199,559.681274,5.43958282,211,223,159
887.214661,585.586121,5.64286423,201,169,181
887.986267,558.120178,5.05255699,177,202,173
874.500427,581.778687,4.57994032,212,153,226
871.703125,598.538574,5.83358335,231,161,180
868.275024,588.605408,4.5685482,247,224,254
853.742249,603.504089,5.49729061,206,244,242
844.767395,600.121948,4.09370375,235,187,230
813.912048,590.935364,4.12537909,157,190,155
825.733032,601.533447,4.49364758,213,178,177
827.769043,609.989197,4.20378494,168,158,176
785.841614,583.668335,5.73309612,249,231,164
796.890808,600.013855,5.88596773,198,219,205
799.145874,622.062622,5.92815685,166,207,236
770.149841,569.581848,4.98762798,209,240,238
779.172913,574.743896,5.40771389,196,172,234
766.243225,631.606262,5.42609215,250,182,173
719.217712,588.225159,5.52207565,217,196,174
696.332031,606.547668,4.59610462,233,232,232
666.200806,623.293518,5.28829861,166,250,197
600.164795,608.720825,4.77024031,190,248,196
582.850952,626.126526,4.22195482,227,248,254
538.059326,651.322083,4.1047101,162,231,250
486.358124,604.834595,5.64435959,151,165,158
454.549774,583.106812,5.3147068,203,205,235
486.152466,685.568542,4.43148136,236,194,183
473.910645,588.147766,4.78946877,156,185,167
439.998322,621.46405,5.4741931,193,170,177
444.816254,562.982056,5.42641354,214,249,170
432.437042,602.930481,4.57481909,162,206,198
415.058319,666.854553,4.22302437,202,193,196
408.652954,636.312012,5.67096043,162,186,251
412.77002,582.606323,4.6746912,230,249,163
416.856567,563.980591,4.82728529,152,251,166
402.663788,567.829102,5.81213188,173,178,192
393.374664,613.422119,5.75529385,209,239,251
388.715698,597.729553,5.52461815,177,165,196
378.558655,600.647156,4.43961048,207,225,176
355.303925,605.126892,5.15071106,208,196,243
364.775085,617.860413,4.73546743,155,156,245
346.226959,610.155334,4.66419888,182,204,207
341.747803,593.14209,4.44652653,161,165,229
341.505646,602.184998,4.59960079,226,156,249
343.283539,572.128357,5.69412136,181,224,157
323.401978,582.620544,5.56639671,221,194,235
353.266541,558.551208,4.30465555,216,178,254
359.25882,550.322388,5.87475681,177,226,228
302.293304,566.532776,4.11943293,239,153,239
311.767273,562.64563,5.98041773,154,205,245
338.889191,547.682739,5.30191469,164,181,177
290.478149,563.613403,5.5538559,208,239,220
276.227692,577.214905,4.28160572,174,159,194
275.931244,659.437195,4.5524745,202,221,253
246.34581,566.776001,5.81284189,177,224,214
258.134827,639.459595,4.69038439,251,237,203
290.315125,553.12085,4.93997669,180,254,195
255.445358,600.194458,4.12440634,154,233,201
254.509018,591.386902,4.46050167,203,182,199
244.603836,685.396179,4.6038332,164,245,210
245.898148,597.144897,5.89814234,218,155,187
245.857315,608.999939,5.85732079,231,227,223
257.064789,678.555664,4.36061573,243,152,243
1034.27209,608.180664,5.72792339,193,182,230
1034.0376,553.093872,5.96238518,199,160,244
995.83374,554.660156,4.48395443,190,165,217
1022.09265,558.981812,5.90285969,205,213,208
1034.03772,587.538208,5.96228743,225,160,250
1026.44568,624.278137,4.87399197,236,204,251
999.742737,673.832275,5.2446866,155,153,178
990.043823,563.146729,5.81579781,166,192,229
991.522339,578.467468,5.95461559,157,162,255
981.096802,581.629822,4.9538002,249,243,214
972.625488,586.695312,4.9164691,208,233,237
962.817139,583.026428,5.52715826,235,193,158
931.023926,578.361389,5.67081547,250,241,177
952.070862,580.954285,4.45735359,234,237,191
952.728088,628.802124,4.64334011,204,221,197
911.822083,586.940796,4.19079876,176,242,216
945.978271,616.92157,5.78928566,159,249,158
916.515015,594.025879,4.30761385,176,183,150
910.13562,599.486633,4.08982277,220,216,233
897.019592,586.202393,4.18144321,184,248,252
883.432129,567.254578,5.15424538,166,167,194
882.108948,576.819702,4.50200272,202,240,231
891.96814,608.034668,5.31326199,150,207,175
883.028442,601.371521,5.83647823,236,159,208
869.36792,629.888855,4.4417057,154,214,166
863.030396,570.264282,4.29635572,190,242,217
833.509644,571.893799,5.16324472,205,200,170
823.713623,574.723694,5.03339672,168,209,220
804.945984,586.705933,5.78818846,175,189,154
794.683167,589.464294,4.8388958,172,255,233
796.866699,579.564331,4.99507952,242,157,190
809.996826,647.497253,4.59138918,252,195,177
767.372253,589.540527,5.27208519,217,164,248
757.837585,585.007996,5.01384068,173,176,189
742.428955,571.315308,4.09528255,247,242,173
720.749817,578.054504,4.70520496,216,183,206
719.50708,615.72113,4.9265871,172,218,244
591.413086,608.955688,4.25573349,190,206,209
561.474487,647.944519,5.0450201,206,159,189
511.116852,617.610779,4.45225048,234,210,233
459.356995,574.580811,4.46083355,235,196,217
476.674438,577.684387,5.93369102,185,190,218
450.840454,594.960999,5.51813793,199,179,211
430.167999,626.924316,5.63605356,176,200,227
462.2742,601.773315,4.25071287,196,249,188
456.535004,566.138184,4.4409771,234,203,170
429.124573,575.879761,4.29920292,208,180,191
420.515381,651.075439,5.41864157,183,158,230
439.418945,595.115906,5.90444374,235,166,217
433.723969,565.265198,5.89841747,174,170,250
425.025146,560.12616,4.20503187,212,238,200
404.821594,588.491577,4.73856163,237,215,253
396.968628,603.262695,4.36039162,219,150,172
395.878876,575.259827,4.25025034,206,230,183
386.096191,576.526733,5.61414194,222,162,219
369.636383,598.803284,4.67122078,152,230,212
354.720978,615.791077,5.52943802,196,204,213
365.962952,589.86499,4.99251747,239,164,249
354.798401,589.727295,5.57241154,217,167,232
378.433289,556.708374,5.5643425,253,227,207
398.019196,557.808716,5.23182392,210,153,237
343.873291,561.040161,5.40974188,155,246,198
333.018982,578.046326,5.08146906,214,218,176
324.313599,607.304932,4.96452856,162,213,211
313.078827,579.840515,5.10541439,229,192,223
333.536194,557.200073,5.61757994,217,193,172
296.625153,573.204224,4.63309956,206,250,221
284.466949,609.930603,4.50093555,216,165,232
282.54953,584.888855,5.25598669,229,221,246
256.714478,570.171753,5.09771729,202,224,154
272.666107,594.289978,4.70591688,155,246,154
264.885345,601.882629,5.46539783,218,208,182
254.880676,660.215759,4.57151651,254,168,235
263.623596,591.831238,4.66491222,243,196,188
255.087524,581.037292,5.88889694,233,203,156
245.264557,652.631836,5.26456451,236,168,203
245.202209,586.066345,5.20220566,178,173,231
256.052612,649.825439,5.88254499,206,157,239
244.900238,642.473572,4.90023327,166,215,155
252.989944,670.022522,5.09556961,211,190,218
1035.62036,683.091919,4.37963057,190,198,240
1034.96057,629.536438,5.03940868,152,159,247
1023.81293,590.548828,4.96607924,151,173,223
1034.62048,576.293091,5.37955761,192,204,188
1035.65576,598.203979,4.34422112,251,169,240
1025.2605,580.829163,4.86074924,168,233,248
958.390747,561.408325,5.29700947,202,183,171
1003.46912,578.537842,5.93003082,176,159,222
982.56897,571.461548,5.41325951,219,254,208
967.051392,567.12915,4.54219246,151,178,217
938.733154,569.741699,5.89346743,238,159,202
958.164795,572.592468,5.88947248,200,197,170
912.867065,567.390198,4.40526533,249,247,179
914.251282,577.057068,5.36022377,214,194,217
921.832886,585.345154,5.87253428,185,232,150
954.644409,611.415894,4.44096756,195,255,181
945.350037,591.34845,5.34492111,187,166,223
955.230774,588.817017,4.01663971,199,184,234
934.347778,589.397095,5.82909727,164,153,242
904.687622,581.106567,5.02545261,175,168,241
904.125793,592.36792,5.22658348,190,191,199
894.196594,576.989685,5.42810535,188,172,245
873.083374,571.421997,5.82304287,212,246,218
867.53241,563.112732,4.1542902,189,224,210
865.322632,579.614868,4.84954309,207,182,224
843.756775,573.369812,5.18960667,197,159,231
852.471863,566.925659,5.61018085,185,208,212
806.589478,575.953979,5.08850765,152,223,251
815.629578,581.454224,5.48576307,240,157,200
800.299805,567.384521,5.54148483,222,155,238
816.609924,600.459778,4.66721344,177,246,203
789.815796,571.49646,5.71964741,205,208,234
776.252014,594.341858,4.82267904,209,251,189
755.341064,575.40155,4.88509083,186,228,241
746.433228,579.304932,4.83877945,171,160,207
768.49469,650.290955,4.04382658,235,156,210
748.675598,588.896729,4.93905115,217,241,228
696.449707,597.390259,4.56207609,227,187,150
504.295959,591.494934,5.84805393,178,154,223
497.810638,576.080933,5.88506269,220,216,196
494.143585,586.722107,5.37026882,217,218,150
501.953552,612.912048,4.61961365,176,205,255
500.356598,653.418396,5.07110786,210,212,201
449.238403,573.247314,5.74527168,204,195,181
439.487976,610.291931,5.61864853,185,255,198
438.62738,575.010803,5.01126814,229,246,234
433.944031,584.762878,5.80711699,184,188,171
412.270538,572.883606,5.04319859,191,236,230
417.695801,641.368408,4.6895628,216,179,206
424.381439,568.660034,4.02650213,178,186,236
398.095886,594.617004,4.35850668,172,194,166
394.100403,585.621887,5.48125219,215,250,155
391.347107,566.529846,5.5788641,171,182,179
378.458923,582.429321,4.03825808,181,191,227
360.946014,582.075439,4.24299097,185,183,222
381.348053,566.262024,4.42378855,227,188,196
376.063812,573.800171,4.78206587,164,177,173
408.46582,558.431152,5.23260117,158,196,182
363.791748,573.430908,4.8578887,216,223,189
362.471283,561.80481,5.40429211,178,199,247
372.183655,565.012085,4.82391644,150,183,242
333.387268,567.906555,5.06500816,197,198,213
323.613129,562.980896,5.86625433,237,175,166
368.759857,554.266724,4.4125042,175,198,216
347.63501,551.902344,4.40863276,252,202,214
308.304443,572.044678,4.03624821,192,174,152
307.513458,552.391113,5.12135649,181,175,165
318.00354,554.827881,4.01995754,222,205,214
266.2547,645.687012,4.93011045,229,190,200
274.740356,614.699768,4.57101774,227,178,232
266.917664,573.780884,5.64119768,194,164,152
255.719437,608.340942,4.02673531,179,206,253
264.766327,583.210754,4.03101683,197,215,245
244.083969,621.877441,4.08397102,225,206,253
246.064331,631.699951,5.93613148,206,198,194
244.900955,675.896057,4.90095711,194,228,169
253.448486,618.101379,5.99436474,255,242,216
1035.55981,674.024414,4.44022274,227,213,189
